# .PCD v0.7 - Point Cloud Data file format
VERSION 0.7
FIELDS x y z rgb
SIZE 4 4 4 4
TYPE F F F F
COUNT 1 1 1 1
WIDTH 1903
HEIGHT 1
VIEWPOINT 0 0 0 1 0 0 0
POINTS 1903
DATA ascii
335 63 230 1.0129601e-038
336 63 230 9.9462918e-039
337 63 231 1.0038487e-038
338 63 231 1.0315425e-038
349 63 18 9.8530144e-039
350 63 19 9.8533633e-039
351 63 19 9.7611676e-039
352 63 19 1.021856e-038
353 63 19 1.021856e-038
354 63 19 1.0126364e-038
355 63 19 1.0034169e-038
356 63 20 1.0034166e-038
357 63 20 9.9419702e-039
358 63 20 9.8504948e-039
359 63 21 9.7582992e-039
360 63 22 1.0034886e-038
361 63 22 1.0034886e-038
362 63 21 9.8515724e-039
363 63 21 9.8515724e-039
364 63 22 9.8522913e-039
365 63 30 9.8522913e-039
366 63 30 9.8522927e-039
374 63 50 9.5760715e-039
375 63 50 9.5760715e-039
376 63 50 9.6661092e-039
377 63 50 9.5739135e-039
378 63 253 9.7572258e-039
379 63 254 9.7572258e-039
380 63 254 9.3920334e-039
381 63 254 9.6686203e-039
382 63 254 9.4871045e-039
418 63 255 9.4896268e-039
419 63 255 9.5818225e-039
420 63 255 9.5811176e-039
421 63 255 9.5811176e-039
422 63 255 9.5811176e-039
423 63 255 9.488922e-039
424 63 255 9.673665e-039
425 63 255 9.7658606e-039
426 63 255 9.9495288e-039
427 63 255 9.9495288e-039
428 63 255 9.8573332e-039
429 63 255 9.9495288e-039
430 63 255 1.004173e-038
431 63 255 1.0133926e-038
432 63 255 9.8580478e-039
444 63 255 1.0137517e-038
445 63 255 1.0137517e-038
446 63 255 1.0137872e-038
447 63 255 1.0137872e-038
448 63 255 9.7705353e-039
449 63 255 9.7705353e-039
450 63 255 1.0045326e-038
503 63 2 1.9540397e-038
504 63 2 1.9908822e-038
505 63 2 2.0001017e-038
506 63 2 2.0184693e-038
507 63 2 2.0276888e-038
508 63 2 2.0460556e-038
509 63 2 2.0460556e-038
510 63 2 2.0552033e-038
511 63 2 2.0552033e-038
512 63 2 2.0552033e-038
513 63 2 2.0552033e-038
514 63 2 2.0552033e-038
515 63 2 2.0552033e-038
516 63 2 2.0552033e-038
517 63 2 2.0552033e-038
518 63 2 2.0552033e-038
519 63 2 2.0552033e-038
520 63 2 2.0459838e-038
521 63 2 2.0459838e-038
522 63 2 2.0459838e-038
523 63 2 2.0459838e-038
524 63 2 2.0459838e-038
525 63 2 2.0459838e-038
526 63 2 2.0459838e-038
527 63 2 2.0459838e-038
528 63 2 2.0184693e-038
529 63 2 2.0184693e-038
530 63 2 2.0184693e-038
531 63 2 2.0184693e-038
532 63 2 2.0184693e-038
614 63 122 1.9077979e-038
615 63 122 1.8985784e-038
616 63 122 1.9077979e-038
617 63 133 1.9077979e-038
618 63 133 1.9169452e-038
619 63 133 1.9169452e-038
620 63 153 1.9077259e-038
621 63 153 1.9077259e-038
622 63 153 1.9168734e-038
623 63 153 1.9168734e-038
624 63 153 1.8711338e-038
633 63 2 1.8709911e-038
634 63 2 1.9167665e-038
635 63 2 1.907547e-038
636 63 2 1.7513893e-038
637 63 2 1.8159263e-038
638 63 2 2.7819978e-041
639 63 2 4.2225327e-041
128 64 7 1.9731251e-038
129 64 8 1.9639055e-038
130 64 8 1.9270997e-038
131 64 7 1.9270997e-038
148 64 251 1.4195214e-038
149 64 251 1.4379605e-038
150 64 251 1.4563999e-038
151 64 251 1.4656195e-038
152 64 251 1.4564366e-038
153 64 251 1.4564366e-038
154 64 251 1.4197027e-038
155 64 251 1.4381418e-038
156 64 251 1.3922234e-038
157 64 251 1.3830038e-038
158 64 251 1.3370491e-038
159 64 251 1.3186099e-038
160 64 251 1.3367244e-038
161 64 251 1.3275048e-038
162 64 250 1.3090657e-038
163 64 247 1.3182853e-038
164 64 248 1.3275048e-038
165 64 248 1.345944e-038
166 64 248 1.3368323e-038
167 64 247 1.3368323e-038
178 64 9 1.2258738e-038
179 64 10 1.2074347e-038
180 64 10 1.1980358e-038
181 64 8 1.1795967e-038
182 64 5 1.1887445e-038
183 64 6 1.1887445e-038
184 64 7 1.1519382e-038
185 64 7 1.1427187e-038
186 64 7 1.1244237e-038
187 64 7 1.1059846e-038
188 64 7 1.0692144e-038
189 64 7 1.0599948e-038
190 64 7 1.0324443e-038
191 64 7 1.0324443e-038
192 64 7 1.0230457e-038
193 64 7 1.0322653e-038
194 64 7 1.0597439e-038
195 64 6 1.0597439e-038
196 64 2 1.0872941e-038
222 64 245 1.7135752e-038
223 64 245 1.7320143e-038
224 64 245 1.7687489e-038
225 64 245 1.7779685e-038
226 64 245 1.7688208e-038
227 64 245 1.7780404e-038
228 64 245 1.7505615e-038
229 64 245 1.7505615e-038
230 64 245 1.7505616e-038
231 64 245 1.741342e-038
232 64 245 1.7597812e-038
233 64 246 1.7597812e-038
234 64 246 1.7872599e-038
235 64 245 1.7872599e-038
236 64 245 1.805627e-038
237 64 245 1.805627e-038
238 64 245 1.8239225e-038
239 64 245 1.8239225e-038
240 64 245 1.8056269e-038
241 64 245 1.8056269e-038
242 64 245 1.8056628e-038
243 64 245 1.8056628e-038
244 64 245 1.7688207e-038
245 64 245 1.7688207e-038
246 64 245 1.7503818e-038
247 64 245 1.7411622e-038
248 64 187 1.7320146e-038
249 64 186 1.722795e-038
250 64 187 1.7227951e-038
251 64 187 1.7135756e-038
252 64 188 1.704356e-038
253 64 189 1.704356e-038
254 64 190 1.6768052e-038
255 64 190 1.6768052e-038
256 64 191 1.6491478e-038
257 64 191 1.6399282e-038
258 64 191 1.63078e-038
259 64 191 1.6215604e-038
260 64 191 1.6031566e-038
261 64 190 1.5939371e-038
262 64 190 1.5939362e-038
263 64 190 1.5939362e-038
264 64 190 1.5754247e-038
265 64 190 1.5569855e-038
266 64 190 1.5660608e-038
267 64 190 1.5476216e-038
268 64 190 1.5751364e-038
294 64 2 1.3076976e-038
295 64 2 1.298478e-038
296 64 2 1.2985499e-038
297 64 2 1.2985499e-038
298 64 2 1.2802187e-038
299 64 2 1.2894383e-038
300 64 2 1.271071e-038
301 64 2 1.2618515e-038
306 64 2 1.2524167e-038
307 64 2 1.2339775e-038
308 64 2 1.1972073e-038
309 64 2 1.1879878e-038
310 64 2 1.1787682e-038
311 64 2 1.1695486e-038
312 64 2 1.1511814e-038
313 64 2 1.1419618e-038
314 64 2 1.160221e-038
315 64 2 1.1510015e-038
316 64 2 1.1509296e-038
317 64 2 1.1509296e-038
325 64 221 1.0682401e-038
326 64 223 1.077388e-038
327 64 225 1.0866076e-038
328 64 226 1.077388e-038
329 64 227 1.0681685e-038
330 64 227 1.0405462e-038
331 64 229 1.0405462e-038
332 64 229 1.0313272e-038
333 64 230 1.0405468e-038
334 64 230 1.0129245e-038
335 64 230 1.0129245e-038
336 64 231 1.0313993e-038
337 64 231 1.0406188e-038
338 64 231 1.0407978e-038
339 64 231 1.0684564e-038
340 64 231 1.0319373e-038
350 64 18 1.0129233e-038
351 64 19 1.0037037e-038
352 64 19 1.0219275e-038
353 64 19 1.0219275e-038
354 64 19 1.012708e-038
355 64 20 1.012708e-038
356 64 20 9.6671812e-039
357 64 20 9.7593768e-039
358 64 21 9.667184e-039
359 64 21 9.667184e-039
360 64 22 9.9444897e-039
361 64 22 9.8522941e-039
362 64 21 9.5764247e-039
363 64 21 9.5764247e-039
364 64 30 9.6686203e-039
365 64 30 9.6686203e-039
375 64 49 9.5749995e-039
376 64 49 9.5724828e-039
377 64 49 9.6646784e-039
378 64 50 9.8490655e-039
379 64 253 9.8490655e-039
380 64 253 9.4824368e-039
381 64 253 9.5746324e-039
382 64 50 9.2094428e-039
395 64 122 1.0684562e-038
396 64 122 1.0500168e-038
397 64 118 1.0500168e-038
418 64 255 9.6714944e-039
419 64 255 9.8558856e-039
420 64 255 9.673295e-039
429 64 255 9.673658e-039
430 64 255 9.8576877e-039
431 64 255 9.8576877e-039
432 64 255 9.6743838e-039
445 64 255 9.8612974e-039
446 64 255 9.8609443e-039
447 64 255 9.8609443e-039
448 64 255 1.0503068e-038
449 64 255 1.0595264e-038
450 64 255 1.0687458e-038
451 64 255 1.0687458e-038
503 64 2 1.990774e-038
504 64 2 1.9999578e-038
505 64 2 2.018397e-038
506 64 2 2.0367645e-038
507 64 2 2.0552036e-038
508 64 2 2.045984e-038
509 64 2 2.045984e-038
510 64 2 2.0552039e-038
511 64 2 2.0644234e-038
512 64 2 2.0277243e-038
513 64 2 2.0277243e-038
514 64 2 2.0277241e-038
515 64 2 2.0277241e-038
516 64 2 2.0276885e-038
517 64 2 2.0276885e-038
518 64 2 2.0460559e-038
519 64 2 2.0460559e-038
520 64 2 2.0368364e-038
521 64 2 2.0368364e-038
522 64 2 2.0459843e-038
523 64 2 2.0459843e-038
524 64 2 2.0459843e-038
525 64 2 2.0459843e-038
526 64 2 2.0459843e-038
527 64 2 2.0459843e-038
528 64 2 2.0368364e-038
529 64 2 2.0368364e-038
530 64 2 2.0368364e-038
531 64 2 2.0368364e-038
532 64 2 2.0368364e-038
533 64 2 2.0368364e-038
607 64 122 1.9262013e-038
608 64 122 1.9078348e-038
609 64 122 1.9078348e-038
610 64 122 1.9078348e-038
611 64 121 1.9078348e-038
614 64 121 1.8986152e-038
615 64 121 1.8986152e-038
616 64 121 1.8986149e-038
617 64 121 1.8893954e-038
618 64 133 1.8801758e-038
619 64 133 1.8801758e-038
620 64 133 1.8801755e-038
621 64 133 1.8893951e-038
633 64 2 1.898362e-038
634 64 2 1.8705944e-038
635 64 2 1.9627901e-038
636 64 2 1.8892517e-038
637 64 2 1.8615931e-038
638 64 2 8.8183712e-042
639 64 2 1.6381179e-041
128 65 6 1.9731251e-038
129 65 8 1.9546859e-038
130 65 8 1.9178801e-038
147 65 251 1.4195578e-038
148 65 251 1.4379605e-038
149 65 251 1.4563996e-038
150 65 251 1.474839e-038
151 65 251 1.4840586e-038
152 65 251 1.4933149e-038
153 65 251 1.4933149e-038
154 65 251 1.4658005e-038
155 65 251 1.4658005e-038
156 65 251 1.4383212e-038
157 65 251 1.4198821e-038
158 65 251 1.3739273e-038
159 65 251 1.3462686e-038
160 65 251 1.345944e-038
161 65 251 1.3367244e-038
162 65 250 1.3090657e-038
163 65 247 1.3090657e-038
164 65 248 1.2998461e-038
165 65 248 1.3090657e-038
166 65 248 1.2907345e-038
179 65 8 1.1889956e-038
180 65 8 1.1888162e-038
181 65 4 1.1795967e-038
182 65 4 1.1887445e-038
183 65 4 1.1887445e-038
184 65 6 1.1519382e-038
185 65 7 1.1519382e-038
186 65 7 1.1244237e-038
187 65 7 1.1152042e-038
188 65 7 1.0692144e-038
189 65 7 1.0599948e-038
190 65 7 1.0324443e-038
191 65 7 1.0324443e-038
192 65 7 1.0322653e-038
193 65 7 1.0322653e-038
194 65 7 1.0597439e-038
195 65 2 1.0689634e-038
221 65 245 1.7136105e-038
222 65 245 1.7227947e-038
223 65 245 1.7412339e-038
224 65 245 1.7779685e-038
225 65 245 1.787188e-038
226 65 245 1.7780404e-038
227 65 245 1.7964795e-038
228 65 245 1.7690006e-038
229 65 245 1.759781e-038
230 65 245 1.7597812e-038
231 65 245 1.7505616e-038
232 65 246 1.7597812e-038
233 65 246 1.7597812e-038
234 65 246 1.7872599e-038
235 65 245 1.7872599e-038
236 65 245 1.805627e-038
237 65 245 1.805627e-038
238 65 245 1.8239225e-038
239 65 245 1.8239225e-038
240 65 245 1.7964073e-038
241 65 245 1.8056269e-038
242 65 245 1.7964432e-038
243 65 245 1.8056628e-038
244 65 245 1.7688207e-038
245 65 245 1.7596011e-038
246 65 245 1.7503818e-038
247 65 245 1.7411622e-038
248 65 187 1.7320146e-038
249 65 187 1.7320146e-038
250 65 187 1.7227951e-038
251 65 187 1.7135756e-038
252 65 188 1.704356e-038
253 65 189 1.704356e-038
254 65 189 1.6768052e-038
255 65 190 1.6768052e-038
256 65 190 1.6583674e-038
257 65 190 1.6491478e-038
258 65 190 1.63078e-038
259 65 190 1.6215604e-038
260 65 189 1.6031566e-038
261 65 189 1.5939371e-038
262 65 189 1.5939362e-038
263 65 189 1.5939362e-038
264 65 189 1.5846442e-038
265 65 189 1.5662051e-038
266 65 190 1.5660608e-038
267 65 190 1.5568412e-038
293 65 2 1.3260644e-038
294 65 2 1.298478e-038
295 65 2 1.2892585e-038
296 65 2 1.2893304e-038
297 65 2 1.2985499e-038
298 65 2 1.2802187e-038
299 65 2 1.2802187e-038
300 65 2 1.271071e-038
301 65 2 1.2618515e-038
302 65 2 1.2618515e-038
303 65 2 1.2526319e-038
305 65 2 1.2708559e-038
306 65 2 1.2524167e-038
307 65 2 1.2339775e-038
308 65 2 1.1972073e-038
309 65 2 1.1879878e-038
310 65 2 1.1787682e-038
311 65 2 1.1695486e-038
312 65 2 1.1511814e-038
313 65 2 1.1511814e-038
314 65 2 1.160221e-038
315 65 2 1.1510015e-038
316 65 2 1.1509296e-038
317 65 2 1.1509296e-038
324 65 221 1.0774597e-038
325 65 223 1.0774597e-038
326 65 225 1.0866076e-038
327 65 226 1.0866076e-038
328 65 226 1.0958272e-038
329 65 226 1.077388e-038
330 65 227 1.0497658e-038
331 65 229 1.0497658e-038
332 65 229 1.0497663e-038
333 65 230 1.0589859e-038
334 65 230 1.0313637e-038
335 65 231 1.0221441e-038
336 65 231 1.0313993e-038
337 65 231 1.0406188e-038
338 65 231 1.0407978e-038
339 65 231 1.0592369e-038
340 65 231 1.0227178e-038
341 65 231 1.0780352e-038
351 65 19 1.0221428e-038
352 65 19 1.031147e-038
353 65 19 1.0219275e-038
354 65 20 1.012708e-038
355 65 20 1.0034885e-038
356 65 20 9.7593768e-039
357 65 20 9.7593768e-039
358 65 20 9.7593796e-039
359 65 21 9.8515752e-039
360 65 22 9.9444897e-039
361 65 22 9.8522941e-039
362 65 22 9.5764247e-039
363 65 22 9.5764247e-039
364 65 30 9.6686203e-039
365 65 30 9.6686203e-039
375 65 48 9.5749995e-039
376 65 49 9.6646784e-039
377 65 49 9.7568741e-039
378 65 49 9.8490655e-039
379 65 252 9.9412611e-039
380 65 253 9.4824368e-039
381 65 253 9.666828e-039
382 65 50 9.3016384e-039
395 65 122 1.0868953e-038
396 65 122 1.0776755e-038
397 65 122 1.0684559e-038
398 65 118 1.0500522e-038
399 65 118 1.0408327e-038
400 65 118 9.9505685e-039
401 65 121 9.8583729e-039
402 65 123 9.7654752e-039
403 65 123 9.581084e-039
419 65 255 9.8558856e-039
431 65 255 9.8576877e-039
445 65 255 9.7691018e-039
446 65 255 9.7687487e-039
447 65 255 9.7687487e-039
448 65 255 1.0410873e-038
449 65 255 1.0410873e-038
450 65 255 1.0595263e-038
451 65 255 1.0595263e-038
504 65 2 1.9999578e-038
505 65 2 2.018397e-038
506 65 2 2.0367645e-038
507 65 2 2.045984e-038
508 65 2 2.045984e-038
509 65 2 2.045984e-038
510 65 2 2.0552039e-038
511 65 2 2.0644234e-038
512 65 2 2.0277243e-038
513 65 2 2.0277243e-038
514 65 2 2.0277241e-038
515 65 2 2.0277241e-038
516 65 2 2.0276885e-038
517 65 2 2.0276885e-038
518 65 2 2.0460559e-038
519 65 2 2.0460559e-038
520 65 2 2.0368364e-038
521 65 2 2.0368364e-038
522 65 2 2.0459843e-038
523 65 2 2.0459843e-038
524 65 2 2.0459843e-038
525 65 2 2.0459843e-038
526 65 2 2.0459843e-038
527 65 2 2.0459843e-038
528 65 2 2.0368364e-038
529 65 2 2.0368364e-038
530 65 2 2.0368364e-038
531 65 2 2.0368364e-038
532 65 2 2.0368364e-038
533 65 2 2.0368364e-038
534 65 2 2.0368364e-038
535 65 2 2.0368364e-038
537 65 2 2.0276168e-038
538 65 2 2.0276168e-038
539 65 2 2.0276168e-038
540 65 2 2.0183972e-038
541 65 2 2.0183972e-038
606 65 122 1.9262013e-038
607 65 122 1.9262013e-038
608 65 122 1.9078348e-038
609 65 122 1.9078348e-038
610 65 121 1.9078348e-038
611 65 121 1.9078348e-038
612 65 121 1.8986152e-038
613 65 121 1.8986152e-038
614 65 121 1.8986152e-038
615 65 121 1.8986152e-038
616 65 121 1.8986149e-038
617 65 121 1.8893954e-038
618 65 121 1.8801758e-038
619 65 133 1.8801758e-038
620 65 121 1.8801755e-038
633 65 2 1.9352403e-038
634 65 2 1.9074727e-038
635 65 2 1.9074727e-038
636 65 2 1.8062757e-038
637 65 2 1.8615931e-038
638 65 2 1.746158e-041
639 65 2 3.2227062e-041
128 66 6 1.9455743e-038
129 66 8 1.9363547e-038
130 66 8 1.9178801e-038
146 66 251 1.4655469e-038
147 66 251 1.4747664e-038
148 66 251 1.4932409e-038
149 66 251 1.51168e-038
150 66 251 1.5300838e-038
151 66 251 1.5485229e-038
152 66 251 1.5485601e-038
153 66 251 1.5485601e-038
154 66 251 1.5301574e-038
155 66 251 1.5209378e-038
156 66 251 1.4842748e-038
157 66 251 1.4658357e-038
158 66 251 1.4290286e-038
159 66 251 1.4013699e-038
160 66 251 1.3918627e-038
161 66 251 1.364204e-038
162 66 250 1.3365454e-038
163 66 248 1.3088868e-038
164 66 248 1.3088146e-038
165 66 248 1.299595e-038
179 66 2 1.225658e-038
180 66 4 1.207147e-038
181 66 4 1.1979275e-038
182 66 4 1.1978919e-038
183 66 4 1.1978919e-038
184 66 6 1.1978921e-038
185 66 6 1.1886726e-038
186 66 7 1.1703055e-038
187 66 7 1.1610859e-038
188 66 7 1.124316e-038
189 66 7 1.1058769e-038
190 66 7 1.0875096e-038
191 66 7 1.0875096e-038
192 66 7 1.0507398e-038
193 66 4 1.0507398e-038
221 66 245 1.7136831e-038
222 66 245 1.7321226e-038
223 66 245 1.7413422e-038
224 66 245 1.7596733e-038
225 66 245 1.7781124e-038
226 66 245 1.7873318e-038
227 66 246 1.8057709e-038
228 66 246 1.8057709e-038
229 66 246 1.7965514e-038
230 66 246 1.7873319e-038
231 66 246 1.7781124e-038
232 66 246 1.7872601e-038
233 66 246 1.7872601e-038
234 66 246 1.8147747e-038
235 66 245 1.8147747e-038
236 66 245 1.8422895e-038
237 66 245 1.8422895e-038
238 66 245 1.8514373e-038
239 66 245 1.8514373e-038
240 66 245 1.8147383e-038
241 66 245 1.8147383e-038
242 66 245 1.8147383e-038
243 66 245 1.8147383e-038
244 66 245 1.8054831e-038
245 66 245 1.7962635e-038
246 66 245 1.787044e-038
247 66 186 1.787044e-038
248 66 186 1.7778966e-038
249 66 186 1.768677e-038
250 66 187 1.7686769e-038
251 66 187 1.7594573e-038
252 66 188 1.7410904e-038
253 66 188 1.7318708e-038
254 66 189 1.7318708e-038
255 66 189 1.7318708e-038
256 66 190 1.7042137e-038
257 66 190 1.6949941e-038
258 66 190 1.6766266e-038
259 66 189 1.667407e-038
260 66 189 1.6306718e-038
261 66 188 1.6214523e-038
262 66 188 1.6031205e-038
263 66 188 1.6031205e-038
264 66 189 1.5754971e-038
265 66 189 1.557058e-038
266 66 189 1.5477662e-038
277 66 171 1.4735774e-038
278 66 171 1.4642504e-038
279 66 171 1.4550308e-038
290 66 2 1.3813102e-038
291 66 2 1.3628711e-038
292 66 2 1.3352843e-038
293 66 2 1.3260647e-038
294 66 2 1.298478e-038
295 66 2 1.2892585e-038
296 66 2 1.2801108e-038
297 66 2 1.2893304e-038
298 66 2 1.2985499e-038
299 66 2 1.2985499e-038
300 66 2 1.2802187e-038
301 66 2 1.2802187e-038
302 66 2 1.2802187e-038
303 66 2 1.2709991e-038
304 66 2 1.2892232e-038
305 66 2 1.2800036e-038
306 66 2 1.2615643e-038
307 66 2 1.2431252e-038
308 66 2 1.1972073e-038
309 66 2 1.1879878e-038
310 66 2 1.1787682e-038
311 66 2 1.1787682e-038
312 66 2 1.1696205e-038
313 66 2 1.160401e-038
314 66 2 1.1603289e-038
315 66 2 1.1418898e-038
316 66 2 1.1510015e-038
324 66 221 1.0499454e-038
325 66 223 1.0499454e-038
326 66 225 1.0499452e-038
327 66 226 1.0499452e-038
328 66 226 1.0776037e-038
329 66 227 1.0591646e-038
330 66 227 1.0407256e-038
331 66 229 1.0407256e-038
332 66 230 1.0498735e-038
333 66 230 1.0590931e-038
334 66 230 1.0498735e-038
335 66 231 1.0498735e-038
336 66 231 1.0589506e-038
337 66 231 1.0681702e-038
338 66 231 1.04991e-038
339 66 231 1.0591295e-038
340 66 231 1.03183e-038
341 66 231 1.0871474e-038
342 66 231 1.1333531e-038
352 66 19 9.9452086e-039
353 66 19 9.853013e-039
354 66 19 9.7608159e-039
355 66 20 9.5764247e-039
356 66 20 9.5764247e-039
359 66 21 1.0036681e-038
360 66 22 1.0036681e-038
361 66 22 9.9444855e-039
362 66 22 9.8522913e-039
363 66 22 9.8522913e-039
364 66 30 9.943768e-039
365 66 30 1.0035964e-038
366 66 30 9.9437694e-039
372 66 47 9.4845976e-039
373 66 48 9.3924019e-039
375 66 48 9.6668308e-039
376 66 48 9.8490641e-039
377 66 49 9.9412597e-039
378 66 49 1.0124571e-038
379 66 252 1.0124571e-038
380 66 253 9.7579447e-039
381 66 253 9.9423359e-039
382 66 253 9.5771463e-039
394 66 122 1.1145543e-038
395 66 123 1.1145543e-038
396 66 123 1.1144821e-038
397 66 123 1.1052625e-038
398 66 122 1.0868233e-038
399 66 118 1.0683841e-038
400 66 118 1.0042432e-038
401 66 121 9.9502364e-039
402 66 123 9.7654878e-039
403 66 123 9.5810966e-039
404 66 123 9.4889066e-039
405 66 118 9.3967109e-039
406 66 118 9.3045153e-039
407 66 118 9.3045153e-039
408 66 118 9.4889066e-039
445 66 255 1.0043531e-038
446 66 255 1.0043178e-038
447 66 255 1.0043178e-038
448 66 255 1.0225771e-038
449 66 255 1.0317967e-038
450 66 255 1.0227206e-038
451 66 255 1.0227206e-038
505 66 2 2.0092131e-038
506 66 2 2.0367642e-038
507 66 2 2.0459838e-038
508 66 2 2.045984e-038
509 66 2 2.045984e-038
510 66 2 2.0552036e-038
511 66 2 2.0552036e-038
512 66 2 2.0276885e-038
513 66 2 2.0276885e-038
514 66 2 2.0276885e-038
515 66 2 2.0276885e-038
516 66 2 2.0276885e-038
517 66 2 2.0276885e-038
518 66 2 2.0460559e-038
519 66 2 2.0460559e-038
520 66 2 2.0368364e-038
521 66 2 2.0368364e-038
522 66 2 2.045984e-038
523 66 2 2.045984e-038
524 66 2 2.045984e-038
525 66 2 2.045984e-038
526 66 2 2.0459843e-038
527 66 2 2.0459843e-038
528 66 2 2.0368364e-038
529 66 2 2.0368364e-038
530 66 2 2.0368364e-038
531 66 2 2.0368364e-038
532 66 2 2.0368364e-038
533 66 2 2.0368364e-038
534 66 2 2.0368364e-038
535 66 2 2.0368364e-038
536 66 2 2.0368364e-038
537 66 2 2.0368364e-038
538 66 2 2.0368364e-038
539 66 2 2.0368364e-038
540 66 2 2.0276168e-038
541 66 2 2.0276168e-038
542 66 2 2.0276168e-038
543 66 2 2.0276168e-038
606 66 122 1.9262013e-038
607 66 122 1.9262013e-038
608 66 122 1.9078348e-038
609 66 121 1.9078348e-038
610 66 121 1.9078348e-038
611 66 121 1.9078348e-038
612 66 121 1.8986149e-038
613 66 121 1.8986149e-038
614 66 121 1.8986149e-038
615 66 121 1.8986149e-038
616 66 121 1.8986147e-038
617 66 121 1.8893951e-038
618 66 121 1.8801755e-038
619 66 121 1.8801755e-038
620 66 121 1.8801755e-038
621 66 121 1.8893951e-038
633 66 2 1.9625741e-038
634 66 2 1.8156006e-038
635 66 2 1.9170158e-038
636 66 2 1.8984378e-038
637 66 2 1.8799987e-038
638 66 2 1.3340361e-042
639 66 2 9.2569777e-042
128 67 6 1.9455743e-038
129 67 6 1.9271352e-038
145 67 251 1.4747313e-038
146 67 251 1.4932056e-038
147 67 251 1.5116447e-038
148 67 251 1.5301191e-038
149 67 251 1.5577778e-038
150 67 251 1.5669621e-038
151 67 251 1.5761816e-038
152 67 251 1.5762188e-038
153 67 251 1.5577796e-038
154 67 251 1.5301574e-038
155 67 251 1.5117183e-038
156 67 251 1.4750552e-038
157 67 251 1.438177e-038
158 67 251 1.4013699e-038
159 67 251 1.3737112e-038
160 67 251 1.4010822e-038
161 67 251 1.3734236e-038
162 67 251 1.3365454e-038
163 67 250 1.2996672e-038
164 67 248 1.2903755e-038
165 67 248 1.2719363e-038
180 67 2 1.207147e-038
181 67 2 1.207147e-038
182 67 2 1.2071114e-038
183 67 4 1.2071114e-038
184 67 4 1.2163313e-038
185 67 6 1.2163313e-038
186 67 2 1.1979642e-038
187 67 2 1.179525e-038
188 67 4 1.1335356e-038
189 67 7 1.124316e-038
190 67 7 1.1059487e-038
191 67 4 1.0967292e-038
220 67 245 1.7229026e-038
221 67 245 1.7321222e-038
222 67 245 1.7413422e-038
223 67 245 1.7597813e-038
224 67 245 1.7688928e-038
225 67 245 1.7781124e-038
226 67 246 1.7965514e-038
227 67 246 1.8057709e-038
228 67 246 1.8057709e-038
229 67 246 1.7965514e-038
230 67 246 1.7873319e-038
231 67 246 1.7688928e-038
232 67 246 1.7872601e-038
233 67 246 1.7872601e-038
234 67 246 1.8147747e-038
235 67 245 1.8147747e-038
236 67 245 1.8422895e-038
237 67 245 1.8422895e-038
238 67 245 1.8514373e-038
239 67 245 1.8514373e-038
240 67 245 1.8147383e-038
241 67 246 1.8147383e-038
242 67 246 1.8147383e-038
243 67 245 1.8147383e-038
244 67 245 1.8147027e-038
245 67 245 1.8054831e-038
246 67 245 1.7962635e-038
247 67 186 1.787044e-038
248 67 186 1.7778966e-038
249 67 187 1.7778966e-038
250 67 187 1.7778964e-038
251 67 187 1.7686769e-038
252 67 187 1.7503099e-038
253 67 188 1.7410904e-038
254 67 189 1.7410904e-038
255 67 189 1.7318708e-038
256 67 189 1.7134332e-038
257 67 189 1.7042137e-038
258 67 189 1.6858461e-038
259 67 189 1.6766266e-038
260 67 189 1.6398914e-038
261 67 188 1.6214523e-038
262 67 188 1.6031205e-038
263 67 188 1.6031205e-038
264 67 188 1.5847167e-038
265 67 188 1.5662775e-038
274 67 171 1.5105996e-038
275 67 171 1.4921605e-038
276 67 171 1.4920166e-038
277 67 171 1.4735774e-038
278 67 171 1.4642504e-038
279 67 171 1.4550308e-038
280 67 171 1.4549592e-038
289 67 2 1.3813102e-038
290 67 2 1.3813102e-038
291 67 2 1.3628711e-038
292 67 2 1.3445038e-038
293 67 2 1.3260647e-038
294 67 2 1.3076976e-038
295 67 2 1.298478e-038
296 67 2 1.2801108e-038
297 67 2 1.2801108e-038
298 67 2 1.2893304e-038
299 67 2 1.2985499e-038
300 67 2 1.2894383e-038
301 67 2 1.2802187e-038
302 67 2 1.2802187e-038
303 67 2 1.2802187e-038
304 67 2 1.2892232e-038
305 67 2 1.2800036e-038
306 67 2 1.2615643e-038
307 67 2 1.2431252e-038
308 67 2 1.1972073e-038
309 67 2 1.1879878e-038
310 67 2 1.1787682e-038
311 67 2 1.1787682e-038
312 67 2 1.1788401e-038
313 67 2 1.160401e-038
314 67 2 1.1603289e-038
315 67 2 1.1418898e-038
316 67 2 1.1510015e-038
323 67 220 1.0774965e-038
324 67 221 1.059165e-038
325 67 223 1.059165e-038
326 67 225 1.0591647e-038
327 67 226 1.0591647e-038
328 67 227 1.0776037e-038
329 67 227 1.0683841e-038
330 67 228 1.0499452e-038
331 67 229 1.0499452e-038
332 67 230 1.0683127e-038
333 67 230 1.0683127e-038
334 67 230 1.0683127e-038
335 67 231 1.0590931e-038
336 67 231 1.0681702e-038
337 67 231 1.0773897e-038
338 67 231 1.0406904e-038
339 67 231 1.04991e-038
340 67 231 1.0226104e-038
341 67 231 1.0687083e-038
352 67 18 1.0221795e-038
353 67 19 1.01296e-038
354 67 18 9.8530115e-039
364 67 29 1.0035964e-038
365 67 30 1.0035964e-038
370 67 42 9.7604628e-039
371 67 47 9.7604628e-039
372 67 48 9.5767932e-039
373 67 48 9.4845976e-039
374 67 48 9.7590265e-039
375 67 48 9.6668308e-039
376 67 48 9.9412597e-039
377 67 48 9.9412597e-039
378 67 49 1.0124571e-038
379 67 49 1.0216766e-038
380 67 252 9.8501403e-039
381 67 253 9.9423359e-039
382 67 253 9.7615376e-039
383 67 253 9.9459288e-039
394 67 122 1.1237738e-038
395 67 123 1.1329934e-038
396 67 123 1.1329212e-038
397 67 123 1.1144821e-038
398 67 123 1.0960428e-038
399 67 120 1.0776037e-038
400 67 120 1.0134628e-038
401 67 121 1.0042432e-038
402 67 123 9.9498791e-039
403 67 123 9.7654878e-039
404 67 123 9.6732978e-039
405 67 122 9.4889066e-039
406 67 121 9.4889066e-039
407 67 122 9.4889066e-039
408 67 123 9.5811022e-039
409 67 122 9.5811022e-039
414 67 116 9.3055817e-039
415 67 117 9.3977773e-039
416 67 116 9.3970627e-039
446 67 255 1.0043178e-038
447 67 255 1.0043178e-038
448 67 255 1.0133575e-038
449 67 255 1.0225771e-038
450 67 255 1.013501e-038
507 67 2 2.0459838e-038
508 67 2 2.045984e-038
509 67 2 2.045984e-038
510 67 2 2.045984e-038
511 67 2 2.0552036e-038
512 67 2 2.0276885e-038
513 67 2 2.0276885e-038
514 67 2 2.0276885e-038
515 67 2 2.0276885e-038
516 67 2 2.0276885e-038
517 67 2 2.0276885e-038
518 67 2 2.0460559e-038
519 67 2 2.0460559e-038
520 67 2 2.0368364e-038
521 67 2 2.0368364e-038
522 67 2 2.045984e-038
523 67 2 2.045984e-038
524 67 2 2.045984e-038
525 67 2 2.045984e-038
526 67 2 2.0459843e-038
527 67 2 2.0459843e-038
528 67 2 2.0368364e-038
529 67 2 2.0368364e-038
530 67 2 2.0368364e-038
531 67 2 2.0368364e-038
532 67 2 2.0368364e-038
533 67 2 2.0368364e-038
534 67 2 2.0368364e-038
535 67 2 2.0368364e-038
536 67 2 2.0368364e-038
537 67 2 2.0368364e-038
538 67 2 2.0368364e-038
539 67 2 2.0368364e-038
540 67 2 2.0276168e-038
541 67 2 2.0368364e-038
542 67 2 2.0276168e-038
543 67 2 2.0276168e-038
544 67 2 2.0276165e-038
545 67 2 2.0276165e-038
546 67 2 2.0276165e-038
607 67 122 1.9262013e-038
608 67 121 1.9078348e-038
609 67 121 1.9078348e-038
610 67 121 1.9078348e-038
611 67 121 1.9078348e-038
612 67 121 1.8986149e-038
613 67 121 1.8986149e-038
614 67 121 1.8986149e-038
615 67 121 1.8986149e-038
616 67 121 1.8986147e-038
617 67 121 1.8893951e-038
618 67 121 1.8801755e-038
619 67 122 1.8801755e-038
620 67 122 1.8801755e-038
621 67 122 1.8893951e-038
633 67 2 1.9994524e-038
634 67 2 1.9262354e-038
635 67 2 1.9170158e-038
636 67 2 1.8062422e-038
637 67 2 1.8154618e-038
638 67 2 8.5367102e-042
639 67 2 1.1657822e-040
145 68 251 1.5115731e-038
146 68 251 1.5208998e-038
147 68 251 1.539339e-038
148 68 251 1.5394825e-038
149 68 251 1.548702e-038
150 68 251 1.5579583e-038
151 68 251 1.5671779e-038
152 68 251 1.5488118e-038
153 68 251 1.5303726e-038
154 68 251 1.4934952e-038
155 68 251 1.4658365e-038
156 68 251 1.4473968e-038
157 68 251 1.4197382e-038
158 68 251 1.3828593e-038
159 68 251 1.3644202e-038
160 68 251 1.4194139e-038
161 68 251 1.3917552e-038
162 68 251 1.3548769e-038
163 68 251 1.3179987e-038
164 68 250 1.2994877e-038
165 68 248 1.2810486e-038
180 68 2 1.2255859e-038
181 68 2 1.2255859e-038
182 68 2 1.2164385e-038
183 68 2 1.2164385e-038
184 68 2 1.234842e-038
185 68 2 1.2256224e-038
186 68 2 1.216403e-038
187 68 2 1.2071835e-038
219 68 245 1.7688208e-038
220 68 245 1.7871159e-038
221 68 245 1.7963354e-038
222 68 245 1.8147027e-038
223 68 245 1.8331418e-038
224 68 245 1.8055906e-038
225 68 245 1.8148102e-038
226 68 246 1.8332493e-038
227 68 246 1.8332493e-038
228 68 246 1.8607641e-038
229 68 246 1.8515445e-038
230 68 246 1.8514726e-038
231 68 246 1.842253e-038
232 68 246 1.8514726e-038
233 68 246 1.8514726e-038
234 68 246 1.8514726e-038
235 68 246 1.8514726e-038
236 68 245 1.8422891e-038
237 68 245 1.8422891e-038
238 68 245 1.8422891e-038
239 68 245 1.8422891e-038
240 68 245 1.8422528e-038
241 68 246 1.8422528e-038
242 68 246 1.8514723e-038
243 68 245 1.8514723e-038
244 68 245 1.8331054e-038
245 68 245 1.8238858e-038
246 68 187 1.8238858e-038
247 68 187 1.8146662e-038
248 68 187 1.7962635e-038
249 68 187 1.7962635e-038
250 68 187 1.7870797e-038
251 68 187 1.7870797e-038
252 68 187 1.7778244e-038
253 68 188 1.7686049e-038
254 68 188 1.7593856e-038
255 68 189 1.7593856e-038
256 68 189 1.7134687e-038
257 68 189 1.7042491e-038
258 68 189 1.6858816e-038
259 68 189 1.6674425e-038
260 68 188 1.639927e-038
261 68 187 1.6214879e-038
262 68 187 1.6031202e-038
263 68 188 1.5939006e-038
264 68 188 1.5847167e-038
265 68 188 1.5662775e-038
273 68 171 1.5382219e-038
274 68 171 1.5381498e-038
275 68 171 1.5197107e-038
276 68 171 1.5103118e-038
277 68 171 1.4918727e-038
278 68 171 1.491765e-038
279 68 171 1.491765e-038
280 68 171 1.4825097e-038
288 68 2 1.3721272e-038
289 68 2 1.3629077e-038
290 68 2 1.3629075e-038
291 68 2 1.3536879e-038
292 68 2 1.3444682e-038
293 68 2 1.3444682e-038
294 68 2 1.3352843e-038
295 68 2 1.3352843e-038
296 68 2 1.3076253e-038
297 68 2 1.3076253e-038
298 68 2 1.3168449e-038
299 68 2 1.3260644e-038
300 68 2 1.3352837e-038
301 68 2 1.3260642e-038
302 68 2 1.3260643e-038
303 68 2 1.3260643e-038
304 68 2 1.3075184e-038
305 68 2 1.2982988e-038
306 68 2 1.2799314e-038
307 68 2 1.2614923e-038
308 68 2 1.2155386e-038
309 68 2 1.206319e-038
310 68 2 1.1879878e-038
311 68 2 1.1787682e-038
312 68 2 1.1788401e-038
313 68 2 1.1696205e-038
314 68 2 1.1511813e-038
315 68 2 1.1327421e-038
323 68 220 1.1142666e-038
324 68 221 1.077532e-038
325 68 223 1.077532e-038
326 68 225 1.0592721e-038
327 68 226 1.0592721e-038
328 68 227 1.0592721e-038
329 68 227 1.0500525e-038
330 68 228 1.0591281e-038
331 68 229 1.0591281e-038
332 68 230 1.0866076e-038
333 68 230 1.0958272e-038
334 68 230 1.1233061e-038
335 68 231 1.1140865e-038
336 68 231 1.1048316e-038
337 68 231 1.1140512e-038
338 68 231 1.077388e-038
352 68 18 1.0314711e-038
353 68 18 1.0222516e-038
370 68 42 9.5785855e-039
371 68 47 9.5785855e-039
372 68 47 9.486387e-039
373 68 48 9.3019958e-039
374 68 48 9.4849493e-039
375 68 48 9.3927537e-039
376 68 48 9.7582992e-039
377 68 48 9.7582992e-039
378 68 48 9.8497745e-039
379 68 48 9.8497745e-039
382 68 253 9.4860339e-039
383 68 253 9.7626208e-039
384 68 251 9.9477309e-039
394 68 122 1.1420337e-038
395 68 123 1.1512533e-038
396 68 123 1.142034e-038
397 68 123 1.1235949e-038
398 68 123 1.1051202e-038
399 68 123 1.086681e-038
400 68 121 1.0775688e-038
401 68 121 1.0683492e-038
402 68 123 1.059165e-038
403 68 123 1.0499454e-038
404 68 123 1.0315776e-038
405 68 122 1.0315776e-038
406 68 122 1.0040264e-038
407 68 122 1.013246e-038
408 68 123 1.0040983e-038
409 68 123 1.0040983e-038
410 68 123 9.7654766e-039
413 68 114 9.7651235e-039
414 68 116 9.5814539e-039
415 68 117 9.5814539e-039
416 68 118 9.1222806e-039
417 68 118 9.2144763e-039
418 68 121 9.1230023e-039
448 68 255 9.8587863e-039
449 68 255 9.9509819e-039
510 68 2 2.0459838e-038
511 68 2 2.0552033e-038
512 68 2 2.0276891e-038
513 68 2 2.0276891e-038
514 68 2 2.0276888e-038
515 68 2 2.0276888e-038
516 68 2 2.0276888e-038
517 68 2 2.0276888e-038
518 68 2 2.0460559e-038
519 68 2 2.0460559e-038
520 68 2 2.0368364e-038
521 68 2 2.0368364e-038
522 68 2 2.0459838e-038
523 68 2 2.0459838e-038
524 68 2 2.0459838e-038
525 68 2 2.0459838e-038
526 68 2 2.0459838e-038
527 68 2 2.0459838e-038
528 68 2 2.0368364e-038
529 68 2 2.0368364e-038
530 68 2 2.0368364e-038
531 68 2 2.0368364e-038
532 68 2 2.0368364e-038
533 68 2 2.0368364e-038
534 68 2 2.0368364e-038
535 68 2 2.0368364e-038
536 68 2 2.0368364e-038
537 68 2 2.0368364e-038
538 68 2 2.0368364e-038
539 68 2 2.0368364e-038
540 68 2 2.0276168e-038
541 68 2 2.0368364e-038
542 68 2 2.0276168e-038
543 68 2 2.0276168e-038
544 68 2 2.0550954e-038
545 68 2 2.0550954e-038
546 68 2 2.0550954e-038
547 68 2 2.0550954e-038
548 68 2 2.0275449e-038
609 68 121 1.9078345e-038
610 68 121 1.9078342e-038
611 68 121 1.9078342e-038
612 68 121 1.8986147e-038
613 68 121 1.8986147e-038
614 68 121 1.8986147e-038
615 68 121 1.8986147e-038
616 68 121 1.8986504e-038
617 68 122 1.8894308e-038
618 68 122 1.8802111e-038
619 68 122 1.8802111e-038
620 68 122 1.880211e-038
621 68 122 1.8894306e-038
622 68 122 1.880211e-038
633 68 2 1.7699364e-038
634 68 2 1.8336443e-038
635 68 2 1.9442791e-038
636 68 2 1.8529082e-038
637 68 2 1.8621278e-038
638 68 2 2.6323392e-041
639 68 2 3.2805798e-041
144 69 250 1.5392318e-038
145 69 251 1.5484513e-038
146 69 251 1.5577781e-038
147 69 251 1.5669977e-038
148 69 251 1.5579216e-038
149 69 251 1.5671412e-038
150 69 251 1.5671779e-038
151 69 251 1.5671779e-038
152 69 251 1.5488118e-038
153 69 251 1.5303726e-038
154 69 251 1.4934952e-038
155 69 251 1.4658365e-038
156 69 251 1.4473968e-038
157 69 251 1.4197382e-038
158 69 251 1.3920789e-038
159 69 251 1.3644202e-038
160 69 251 1.4101943e-038
161 69 251 1.3825356e-038
162 69 251 1.3456574e-038
163 69 251 1.3179987e-038
164 69 251 1.3087072e-038
165 69 248 1.2994877e-038
179 69 2 1.2900145e-038
180 69 2 1.2532446e-038
181 69 2 1.2532446e-038
182 69 2 1.2440972e-038
183 69 2 1.2533167e-038
184 69 2 1.2625007e-038
185 69 2 1.2532811e-038
186 69 2 1.2440617e-038
218 69 245 1.7780404e-038
219 69 245 1.7872599e-038
220 69 245 1.805555e-038
221 69 245 1.8147746e-038
222 69 245 1.8331418e-038
223 69 245 1.8423614e-038
224 69 245 1.8332493e-038
225 69 245 1.8332493e-038
226 69 246 1.8332493e-038
227 69 246 1.8332493e-038
228 69 246 1.8607641e-038
229 69 246 1.8515445e-038
230 69 246 1.8606922e-038
231 69 246 1.8514726e-038
232 69 246 1.8606922e-038
233 69 246 1.8606922e-038
234 69 246 1.8606922e-038
235 69 246 1.8606922e-038
236 69 245 1.8515086e-038
237 69 245 1.8515086e-038
238 69 245 1.8515086e-038
239 69 245 1.8515086e-038
240 69 245 1.8514723e-038
241 69 246 1.8514723e-038
242 69 246 1.8606919e-038
243 69 245 1.8606919e-038
244 69 188 1.8423249e-038
245 69 188 1.8423249e-038
246 69 187 1.8331054e-038
247 69 187 1.8238858e-038
248 69 187 1.8054831e-038
249 69 187 1.8054831e-038
250 69 187 1.7962993e-038
251 69 187 1.7962993e-038
252 69 187 1.787044e-038
253 69 188 1.7778244e-038
254 69 188 1.7686051e-038
255 69 189 1.7686051e-038
256 69 189 1.7134687e-038
257 69 189 1.7042491e-038
258 69 189 1.6858816e-038
259 69 188 1.6674425e-038
260 69 188 1.6307074e-038
261 69 187 1.6122683e-038
262 69 187 1.5939006e-038
263 69 188 1.5846811e-038
264 69 188 1.5754971e-038
265 69 187 1.557058e-038
272 69 171 1.5474414e-038
273 69 171 1.5382219e-038
274 69 171 1.5381498e-038
275 69 171 1.5197107e-038
276 69 171 1.5103118e-038
277 69 171 1.5010922e-038
278 69 171 1.5009846e-038
279 69 171 1.491765e-038
287 69 2 1.3904942e-038
288 69 2 1.3629077e-038
289 69 2 1.3629077e-038
290 69 2 1.3629075e-038
291 69 2 1.3536879e-038
292 69 2 1.3536878e-038
293 69 2 1.3444682e-038
294 69 2 1.3445038e-038
295 69 2 1.3445038e-038
296 69 2 1.3076253e-038
297 69 2 1.3168449e-038
298 69 2 1.3260644e-038
299 69 2 1.3260644e-038
300 69 2 1.3260642e-038
301 69 2 1.3260642e-038
302 69 2 1.3260643e-038
303 69 2 1.3168447e-038
304 69 2 1.3075184e-038
305 69 2 1.2982988e-038
306 69 2 1.2799314e-038
307 69 2 1.2614923e-038
308 69 2 1.2155386e-038
309 69 2 1.206319e-038
310 69 2 1.1879878e-038
311 69 2 1.1879878e-038
312 69 2 1.1788401e-038
313 69 205 1.160401e-038
314 69 205 1.1511813e-038
315 69 204 1.1327421e-038
323 69 219 1.1142666e-038
324 69 221 1.0867515e-038
325 69 223 1.0867515e-038
326 69 225 1.0684916e-038
327 69 226 1.0684916e-038
328 69 227 1.0592721e-038
329 69 228 1.0500525e-038
330 69 228 1.0591281e-038
331 69 229 1.0591281e-038
332 69 230 1.0866076e-038
333 69 230 1.0958272e-038
334 69 230 1.1233061e-038
335 69 230 1.1140865e-038
336 69 231 1.1048316e-038
370 69 43 9.6707811e-039
371 69 46 9.6707811e-039
372 69 47 9.5785827e-039
373 69 48 9.3941914e-039
374 69 48 9.5771449e-039
375 69 48 9.4849493e-039
376 69 48 9.7582992e-039
377 69 48 9.7582992e-039
378 69 48 9.8497745e-039
379 69 48 9.7575789e-039
383 69 251 9.8548164e-039
384 69 251 9.9477309e-039
394 69 122 1.1420337e-038
395 69 123 1.1420337e-038
396 69 123 1.142034e-038
397 69 123 1.1235949e-038
398 69 123 1.1143397e-038
399 69 123 1.1051202e-038
400 69 122 1.0775688e-038
401 69 122 1.0775688e-038
402 69 122 1.0683846e-038
403 69 123 1.059165e-038
404 69 123 1.0407972e-038
405 69 122 1.0407972e-038
406 69 122 1.0224656e-038
407 69 122 1.0224656e-038
408 69 122 1.0133179e-038
409 69 122 1.0133179e-038
410 69 123 9.9498679e-039
411 69 112 9.8576723e-039
412 69 114 9.8573191e-039
413 69 114 9.7651235e-039
414 69 115 9.6736495e-039
415 69 116 9.6736495e-039
416 69 118 9.2144763e-039
417 69 121 9.3066719e-039
418 69 122 9.2151979e-039
419 69 122 9.3073936e-039
513 69 2 2.0276891e-038
514 69 2 2.0276888e-038
515 69 2 2.0276888e-038
516 69 2 2.0276888e-038
517 69 2 2.0276888e-038
518 69 2 2.0460559e-038
519 69 2 2.0460559e-038
520 69 2 2.0368364e-038
521 69 2 2.0368364e-038
522 69 2 2.0459838e-038
523 69 2 2.0459838e-038
524 69 2 2.0459838e-038
525 69 2 2.0459838e-038
526 69 2 2.0459838e-038
527 69 2 2.0459838e-038
528 69 2 2.0368364e-038
529 69 2 2.0368364e-038
530 69 2 2.0368364e-038
531 69 2 2.0368364e-038
532 69 2 2.0368364e-038
533 69 2 2.0368364e-038
534 69 2 2.0368364e-038
535 69 2 2.0368364e-038
536 69 2 2.0368364e-038
537 69 2 2.0368364e-038
538 69 2 2.0368364e-038
539 69 2 2.0368364e-038
540 69 2 2.0276168e-038
541 69 2 2.0276168e-038
542 69 2 2.0276168e-038
543 69 2 2.0276168e-038
544 69 2 2.0550954e-038
545 69 2 2.0550954e-038
546 69 2 2.0550954e-038
547 69 2 2.0550954e-038
548 69 2 2.0275449e-038
549 69 2 2.0275449e-038
552 69 10 2.009178e-038
553 69 10 2.009178e-038
554 69 10 1.9908109e-038
610 69 121 1.9078342e-038
611 69 121 1.9078342e-038
612 69 121 1.8986147e-038
613 69 121 1.8986147e-038
614 69 121 1.8986147e-038
615 69 122 1.8986147e-038
616 69 122 1.8986504e-038
617 69 122 1.8894308e-038
618 69 122 1.8802111e-038
619 69 122 1.8802111e-038
620 69 122 1.880211e-038
621 69 122 1.8894306e-038
622 69 122 1.880211e-038
623 69 122 1.8709914e-038
633 69 2 1.7975951e-038
634 69 2 1.9350595e-038
635 69 2 1.9350595e-038
636 69 2 1.7607126e-038
637 69 2 1.7975909e-038
638 69 2 3.3165932e-041
639 69 2 4.8291548e-041
143 70 249 1.4842751e-038
144 70 250 1.539376e-038
145 70 250 1.5485955e-038
146 70 251 1.5395192e-038
147 70 251 1.5579583e-038
148 70 251 1.5304791e-038
149 70 251 1.5304791e-038
150 70 251 1.5029652e-038
151 70 251 1.5029652e-038
152 70 251 1.4752717e-038
153 70 251 1.4568326e-038
154 70 251 1.4291388e-038
155 70 251 1.4106996e-038
156 70 251 1.4014797e-038
157 70 251 1.3830405e-038
158 70 251 1.3645291e-038
159 70 251 1.34609e-038
160 70 251 1.3734956e-038
161 70 251 1.3458369e-038
162 70 251 1.3273618e-038
163 70 251 1.2997031e-038
164 70 248 1.3088146e-038
179 70 2 1.2809388e-038
180 70 2 1.2534241e-038
181 70 2 1.2534241e-038
182 70 2 1.2534606e-038
183 70 2 1.2626802e-038
184 70 2 1.2535325e-038
185 70 2 1.244313e-038
217 70 245 1.7965517e-038
218 70 245 1.8424334e-038
219 70 245 1.8424334e-038
220 70 245 1.8882783e-038
221 70 245 1.8882783e-038
222 70 245 1.9158289e-038
223 70 245 1.9250485e-038
224 70 245 1.8883509e-038
225 70 245 1.8883509e-038
226 70 246 1.8974625e-038
227 70 246 1.888243e-038
228 70 246 1.8973906e-038
229 70 246 1.8973906e-038
230 70 246 1.8973906e-038
231 70 246 1.9066102e-038
232 70 246 1.8790234e-038
233 70 246 1.8790234e-038
234 70 246 1.8515086e-038
235 70 246 1.8515086e-038
236 70 245 1.8240297e-038
237 70 245 1.8240297e-038
238 70 245 1.7965149e-038
239 70 245 1.7965149e-038
240 70 245 1.8331771e-038
241 70 246 1.8331771e-038
242 70 246 1.8331771e-038
243 70 188 1.8423967e-038
244 70 188 1.8331771e-038
245 70 188 1.8331771e-038
246 70 187 1.8148102e-038
247 70 187 1.8055906e-038
248 70 187 1.8055906e-038
249 70 187 1.796371e-038
250 70 187 1.7872233e-038
251 70 187 1.7780038e-038
252 70 187 1.7687486e-038
253 70 188 1.7687486e-038
254 70 188 1.7595291e-038
255 70 189 1.7595291e-038
256 70 189 1.6676576e-038
257 70 188 1.6676576e-038
258 70 188 1.6400346e-038
259 70 188 1.6215955e-038
260 70 188 1.6031562e-038
261 70 187 1.5939366e-038
262 70 187 1.5847164e-038
263 70 188 1.5754968e-038
264 70 188 1.5846442e-038
271 70 171 1.5565902e-038
272 70 171 1.5474061e-038
273 70 171 1.5474061e-038
274 70 171 1.5473339e-038
275 70 171 1.5288948e-038
276 70 171 1.5195315e-038
277 70 171 1.5010924e-038
278 70 171 1.5009846e-038
287 70 2 1.4088966e-038
288 70 2 1.3720916e-038
289 70 2 1.3720916e-038
290 70 2 1.3721271e-038
291 70 2 1.3629075e-038
292 70 2 1.3536881e-038
293 70 2 1.3444685e-038
294 70 2 1.3536515e-038
295 70 2 1.3536515e-038
296 70 2 1.3259927e-038
297 70 2 1.3352122e-038
298 70 2 1.3352118e-038
299 70 2 1.3352118e-038
300 70 2 1.3352476e-038
301 70 2 1.326028e-038
302 70 2 1.326028e-038
303 70 2 1.3168084e-038
304 70 2 1.3166661e-038
305 70 2 1.3074465e-038
306 70 2 1.2890791e-038
307 70 2 1.27064e-038
308 70 2 1.2339057e-038
309 70 2 1.2154665e-038
310 70 2 1.1879878e-038
311 70 2 1.1879878e-038
312 70 176 1.1696205e-038
313 70 205 1.160401e-038
314 70 205 1.1328142e-038
315 70 205 1.1235946e-038
319 70 205 1.1235227e-038
323 70 219 1.1601836e-038
324 70 221 1.1143015e-038
325 70 223 1.1143015e-038
326 70 225 1.0867867e-038
327 70 227 1.0960063e-038
328 70 227 1.086787e-038
329 70 228 1.0683478e-038
330 70 228 1.0866076e-038
331 70 229 1.0866076e-038
332 70 229 1.1324899e-038
333 70 229 1.1417095e-038
334 70 229 1.1691531e-038
335 70 230 1.1599335e-038
371 70 43 9.3045153e-039
372 70 47 9.1204814e-039
373 70 48 8.9360901e-039
374 70 48 9.2108735e-039
375 70 48 9.1186779e-039
376 70 48 9.3001923e-039
377 70 48 9.2079967e-039
378 70 48 9.2076421e-039
379 70 48 9.1154465e-039
384 70 251 9.8566199e-039
385 70 251 1.0041011e-038
394 70 122 1.142034e-038
395 70 122 1.142034e-038
396 70 122 1.1603655e-038
397 70 123 1.1511459e-038
398 70 123 1.1418911e-038
399 70 123 1.1418911e-038
400 70 122 1.1602548e-038
401 70 122 1.1602548e-038
402 70 122 1.141852e-038
403 70 123 1.1234129e-038
404 70 123 1.0867149e-038
405 70 122 1.0867149e-038
406 70 122 1.0591647e-038
407 70 122 1.0591647e-038
408 70 122 1.0316499e-038
409 70 122 1.0316499e-038
410 70 123 9.9502336e-039
411 70 123 9.858038e-039
412 70 114 9.6740069e-039
413 70 114 9.6740069e-039
414 70 115 9.4906932e-039
415 70 116 9.3984976e-039
416 70 118 9.3066719e-039
417 70 121 9.3988675e-039
418 70 122 9.3988689e-039
419 70 122 9.4910646e-039
420 70 124 9.3070404e-039
515 70 2 2.0276891e-038
516 70 2 2.0276891e-038
517 70 2 2.0276891e-038
518 70 2 2.0460559e-038
519 70 2 2.0460559e-038
520 70 2 2.0368364e-038
521 70 2 2.0368364e-038
522 70 2 2.0459838e-038
523 70 2 2.0459838e-038
524 70 2 2.0460195e-038
525 70 2 2.0460195e-038
526 70 2 2.0460195e-038
527 70 2 2.0460195e-038
528 70 2 2.0368364e-038
529 70 2 2.0368364e-038
530 70 2 2.0368364e-038
531 70 2 2.0368364e-038
532 70 2 2.0368364e-038
533 70 2 2.0368364e-038
534 70 2 2.0368364e-038
535 70 2 2.0368364e-038
536 70 2 2.0276168e-038
537 70 2 2.0276168e-038
538 70 2 2.0276168e-038
539 70 2 2.0276168e-038
540 70 2 2.0183972e-038
541 70 2 2.0183972e-038
542 70 2 2.0183972e-038
543 70 2 2.0183972e-038
544 70 2 2.064279e-038
545 70 2 2.064279e-038
546 70 2 2.0550954e-038
547 70 2 2.0550954e-038
548 70 2 2.0458761e-038
549 70 2 2.0458761e-038
550 70 2 2.0275449e-038
551 70 2 2.0275449e-038
552 70 10 2.009178e-038
553 70 10 2.009178e-038
554 70 10 1.9816632e-038
555 70 10 1.9816632e-038
611 70 121 1.9078342e-038
612 70 121 1.8986147e-038
613 70 121 1.8986147e-038
614 70 122 1.8986504e-038
615 70 122 1.8986504e-038
616 70 122 1.8986504e-038
617 70 122 1.8894308e-038
618 70 122 1.880211e-038
619 70 122 1.880211e-038
620 70 122 1.880211e-038
621 70 122 1.8894306e-038
622 70 122 1.880211e-038
623 70 122 1.8709914e-038
624 70 122 1.9169453e-038
633 70 2 1.8157813e-038
634 70 2 1.8431871e-038
635 70 2 1.9446023e-038
636 70 2 1.8528389e-038
637 70 2 1.8159606e-038
638 70 2 1.7038388e-041
639 70 2 2.496133e-041
143 71 249 1.5211533e-038
144 71 249 1.5578151e-038
145 71 250 1.5670347e-038
146 71 250 1.5579583e-038
147 71 251 1.5671779e-038
148 71 251 1.5396987e-038
149 71 251 1.5304791e-038
150 71 250 1.5029652e-038
151 71 250 1.4937456e-038
152 71 251 1.4383935e-038
153 71 251 1.4199544e-038
154 71 251 1.3922605e-038
155 71 251 1.3830409e-038
156 71 251 1.3830405e-038
180 71 2 1.2718632e-038
181 71 2 1.2810828e-038
182 71 2 1.2718998e-038
183 71 2 1.2811193e-038
184 71 2 1.2627521e-038
185 71 2 1.2627521e-038
201 71 44 1.2438092e-038
202 71 46 1.3082015e-038
216 71 245 1.8057712e-038
217 71 245 1.8149908e-038
218 71 245 1.8608725e-038
219 71 245 1.8608725e-038
220 71 245 1.9067174e-038
221 71 245 1.9067174e-038
222 71 245 1.934268e-038
223 71 245 1.9434876e-038
224 71 245 1.90679e-038
225 71 245 1.8975704e-038
226 71 246 1.9066821e-038
227 71 246 1.8974625e-038
228 71 246 1.8973906e-038
229 71 246 1.9066102e-038
230 71 246 1.9158298e-038
231 71 246 1.9158298e-038
232 71 246 1.888243e-038
233 71 246 1.888243e-038
234 71 246 1.8607282e-038
235 71 246 1.8607282e-038
236 71 245 1.8332493e-038
237 71 245 1.8332493e-038
238 71 245 1.8057345e-038
239 71 245 1.8057345e-038
240 71 245 1.8331771e-038
241 71 245 1.8331771e-038
242 71 187 1.8423967e-038
243 71 187 1.8423967e-038
244 71 188 1.8423967e-038
245 71 188 1.8331771e-038
246 71 187 1.8240297e-038
247 71 187 1.8148102e-038
248 71 187 1.8055906e-038
249 71 187 1.8055906e-038
250 71 187 1.7872233e-038
251 71 187 1.7780038e-038
252 71 187 1.7687486e-038
253 71 188 1.7687486e-038
254 71 188 1.7595291e-038
255 71 188 1.7595291e-038
256 71 188 1.6676576e-038
257 71 188 1.658438e-038
258 71 188 1.6400346e-038
259 71 188 1.6215955e-038
260 71 188 1.6031562e-038
261 71 187 1.5847171e-038
262 71 187 1.5754968e-038
263 71 187 1.5754968e-038
264 71 187 1.5754247e-038
271 71 171 1.5473707e-038
272 71 171 1.5474061e-038
273 71 171 1.5474061e-038
274 71 171 1.5473339e-038
275 71 171 1.5288948e-038
276 71 171 1.5195315e-038
277 71 171 1.5010924e-038
278 71 171 1.5009846e-038
287 71 2 1.4088966e-038
288 71 2 1.3813112e-038
289 71 2 1.3813112e-038
290 71 2 1.3721271e-038
291 71 2 1.3629075e-038
292 71 2 1.3536881e-038
293 71 2 1.3444685e-038
294 71 2 1.344432e-038
295 71 2 1.3352124e-038
296 71 2 1.3352122e-038
297 71 2 1.3352122e-038
298 71 2 1.3352118e-038
299 71 2 1.3444314e-038
300 71 2 1.3352476e-038
301 71 2 1.326028e-038
302 71 2 1.3168084e-038
303 71 2 1.3168084e-038
304 71 2 1.3166661e-038
305 71 2 1.3074465e-038
306 71 2 1.2798596e-038
307 71 2 1.27064e-038
308 71 2 1.2339057e-038
309 71 2 1.2154665e-038
310 71 2 1.1879878e-038
311 71 175 1.1879878e-038
312 71 176 1.160401e-038
313 71 177 1.160401e-038
314 71 205 1.1328142e-038
315 71 177 1.1235946e-038
319 71 205 1.1327423e-038
320 71 205 1.2153214e-038
323 71 219 1.1601836e-038
324 71 221 1.123521e-038
325 71 223 1.123521e-038
326 71 225 1.0960063e-038
327 71 227 1.0960063e-038
328 71 227 1.086787e-038
329 71 228 1.0775674e-038
330 71 228 1.0958272e-038
331 71 229 1.0958272e-038
332 71 230 1.1417095e-038
333 71 230 1.150929e-038
334 71 230 1.1783726e-038
335 71 229 1.1691531e-038
372 71 46 9.0282857e-039
373 71 47 8.9360901e-039
374 71 47 9.1186779e-039
375 71 47 9.0264823e-039
376 71 47 9.2079967e-039
377 71 48 9.2079967e-039
378 71 48 9.2076421e-039
384 71 251 9.8566199e-039
385 71 251 1.0041011e-038
386 71 251 1.0500905e-038
394 71 122 1.142034e-038
395 71 122 1.142034e-038
396 71 122 1.1603655e-038
397 71 122 1.1603655e-038
398 71 123 1.1603302e-038
399 71 123 1.1511106e-038
400 71 122 1.1786939e-038
401 71 122 1.1694744e-038
402 71 122 1.1510715e-038
403 71 123 1.1326324e-038
404 71 123 1.0959345e-038
405 71 122 1.0774954e-038
406 71 122 1.0499452e-038
407 71 122 1.0499452e-038
408 71 122 1.0408695e-038
409 71 122 1.0408695e-038
410 71 123 9.9502336e-039
411 71 124 9.9502336e-039
412 71 124 9.7662025e-039
413 71 115 9.7662025e-039
414 71 115 9.4906932e-039
415 71 116 9.4906932e-039
416 71 121 9.3066719e-039
417 71 122 9.3988675e-039
418 71 122 9.3988689e-039
419 71 122 9.4910646e-039
420 71 126 9.3070404e-039
421 71 126 9.3070404e-039
422 71 126 9.3070432e-039
516 71 2 2.0276891e-038
517 71 2 2.0276891e-038
518 71 2 2.0460559e-038
519 71 2 2.0460559e-038
520 71 2 2.0368364e-038
521 71 2 2.0368364e-038
522 71 2 2.0459838e-038
523 71 2 2.0459838e-038
524 71 2 2.0460195e-038
525 71 2 2.0460195e-038
526 71 2 2.0460195e-038
527 71 2 2.0460195e-038
528 71 2 2.0368364e-038
529 71 2 2.0368364e-038
530 71 2 2.0368364e-038
531 71 2 2.0368364e-038
532 71 2 2.0368364e-038
533 71 2 2.0368364e-038
534 71 2 2.0368364e-038
535 71 2 2.0368364e-038
536 71 2 2.0276168e-038
537 71 2 2.0276168e-038
538 71 2 2.0183972e-038
539 71 2 2.0183972e-038
540 71 2 2.0183972e-038
541 71 2 2.0183972e-038
542 71 2 2.0091777e-038
543 71 2 2.0091777e-038
544 71 2 2.064279e-038
